x,y,z
-5,0,5.0
-5,1,5.0
-5,2,5.0
-5,3,5.0
-5,4,5.0
-5,5,5.0
-5,6,5.0
-5,7,5.0
-5,8,5.0
-5,9,5.0
-5,10,5.0
-5,11,5.0
-5,12,5.0
-5,13,5.0
-5,14,5.0
-5,15,5.0
-5,16,5.0
-5,17,5.0
-5,18,5.0
-5,19,5.0
-5,20,5.0
-5,21,5.0
-5,22,5.0
-5,23,5.0
-5,24,5.0
-5,25,5.0
-5,26,5.0
-5,27,5.0
-5,28,5.0
-5,29,5.0
-5,30,5.0
-5,31,5.0
-5,32,5.0
-5,33,5.0
-5,34,5.0
-5,35,5.0
-5,36,5.0
-5,37,5.0
-5,38,5.0
-5,39,5.0
-5,40,5.0
-5,41,5.0
-5,42,5.0
-5,43,5.0
-5,44,5.0
-5,45,5.0
-5,46,5.0
-5,47,5.0
-5,48,5.0
-5,49,5.0
-5,50,5.0
-5,51,5.0
-5,52,5.0
-5,53,5.0
-5,54,5.0
-5,55,5.0
-5,56,5.0
-5,57,5.0
-5,58,5.0
-5,59,5.0
-5,60,5.0
-5,61,5.0
-5,62,5.0
-5,63,5.0
-5,64,5.0
-5,65,5.0
-5,66,5.0
-5,67,5.0
-5,68,5.0
-5,69,5.0
-5,70,5.0
-5,71,5.0
-5,72,5.0
-5,73,5.0
-5,74,5.0
-5,75,5.0
-5,76,5.0
-5,77,5.0
-5,78,5.0
-5,79,5.0
-5,80,5.0
-5,81,5.0
-5,82,5.0
-5,83,5.0
-5,84,5.0
-5,85,5.0
-5,86,5.0
-5,87,5.0
-5,88,5.0
-5,89,5.0
-5,90,5.0
-5,91,5.0
-5,92,5.0
-5,93,5.0
-5,94,5.0
-5,95,5.0
-5,96,5.0
-5,97,5.0
-5,98,5.0
-5,99,5.0
-5,100,5.0
-4,0,5.0
-4,1,5.0
-4,2,5.0
-4,3,5.0
-4,4,5.0
-4,5,5.0
-4,6,5.0
-4,7,5.0
-4,8,5.0
-4,9,5.0
-4,10,5.0
-4,11,5.0
-4,12,5.0
-4,13,5.0
-4,14,5.0
-4,15,5.0
-4,16,5.0
-4,17,5.0
-4,18,5.0
-4,19,5.0
-4,20,5.0
-4,21,5.0
-4,22,5.0
-4,23,5.0
-4,24,5.0
-4,25,5.0
-4,26,5.0
-4,27,5.0
-4,28,5.0
-4,29,5.0
-4,30,5.0
-4,31,5.0
-4,32,5.0
-4,33,5.0
-4,34,5.0
-4,35,5.0
-4,36,5.0
-4,37,5.0
-4,38,5.0
-4,39,5.0
-4,40,5.0
-4,41,5.0
-4,42,5.0
-4,43,5.0
-4,44,5.0
-4,45,5.0
-4,46,5.0
-4,47,5.0
-4,48,5.0
-4,49,5.0
-4,50,5.0
-4,51,5.0
-4,52,5.0
-4,53,5.0
-4,54,5.0
-4,55,5.0
-4,56,5.0
-4,57,5.0
-4,58,5.0
-4,59,5.0
-4,60,5.0
-4,61,5.0
-4,62,5.0
-4,63,5.0
-4,64,5.0
-4,65,5.0
-4,66,5.0
-4,67,5.0
-4,68,5.0
-4,69,5.0
-4,70,5.0
-4,71,5.0
-4,72,5.0
-4,73,5.0
-4,74,5.0
-4,75,5.0
-4,76,5.0
-4,77,5.0
-4,78,5.0
-4,79,5.0
-4,80,5.0
-4,81,5.0
-4,82,5.0
-4,83,5.0
-4,84,5.0
-4,85,5.0
-4,86,5.0
-4,87,5.0
-4,88,5.0
-4,89,5.0
-4,90,5.0
-4,91,5.0
-4,92,5.0
-4,93,5.0
-4,94,5.0
-4,95,5.0
-4,96,5.0
-4,97,5.0
-4,98,5.0
-4,99,5.0
-4,100,5.0
-3,0,5.0
-3,1,5.0
-3,2,5.0
-3,3,5.0
-3,4,5.0
-3,5,5.0
-3,6,5.0
-3,7,5.0
-3,8,5.0
-3,9,5.0
-3,10,5.0
-3,11,5.0
-3,12,5.0
-3,13,5.0
-3,14,5.0
-3,15,5.0
-3,16,5.0
-3,17,5.0
-3,18,5.0
-3,19,5.0
-3,20,5.0
-3,21,5.0
-3,22,5.0
-3,23,5.0
-3,24,5.0
-3,25,5.0
-3,26,5.0
-3,27,5.0
-3,28,5.0
-3,29,5.0
-3,30,5.0
-3,31,5.0
-3,32,5.0
-3,33,5.0
-3,34,5.0
-3,35,5.0
-3,36,5.0
-3,37,5.0
-3,38,5.0
-3,39,5.0
-3,40,5.0
-3,41,5.0
-3,42,5.0
-3,43,5.0
-3,44,5.0
-3,45,5.0
-3,46,5.0
-3,47,5.0
-3,48,5.0
-3,49,5.0
-3,50,5.0
-3,51,5.0
-3,52,5.0
-3,53,5.0
-3,54,5.0
-3,55,5.0
-3,56,5.0
-3,57,5.0
-3,58,5.0
-3,59,5.0
-3,60,5.0
-3,61,5.0
-3,62,5.0
-3,63,5.0
-3,64,5.0
-3,65,5.0
-3,66,5.0
-3,67,5.0
-3,68,5.0
-3,69,5.0
-3,70,5.0
-3,71,5.0
-3,72,5.0
-3,73,5.0
-3,74,5.0
-3,75,5.0
-3,76,5.0
-3,77,5.0
-3,78,5.0
-3,79,5.0
-3,80,5.0
-3,81,5.0
-3,82,5.0
-3,83,5.0
-3,84,5.0
-3,85,5.0
-3,86,5.0
-3,87,5.0
-3,88,5.0
-3,89,5.0
-3,90,5.0
-3,91,5.0
-3,92,5.0
-3,93,5.0
-3,94,5.0
-3,95,5.0
-3,96,5.0
-3,97,5.0
-3,98,5.0
-3,99,5.0
-3,100,5.0
-2,0,5.0
-2,1,5.0
-2,2,5.0
-2,3,5.0
-2,4,5.0
-2,5,5.0
-2,6,5.0
-2,7,5.0
-2,8,5.0
-2,9,5.0
-2,10,5.0
-2,11,5.0
-2,12,5.0
-2,13,5.0
-2,14,5.0
-2,15,5.0
-2,16,5.0
-2,17,5.0
-2,18,5.0
-2,19,5.0
-2,20,5.0
-2,21,5.0
-2,22,5.0
-2,23,5.0
-2,24,5.0
-2,25,5.0
-2,26,5.0
-2,27,5.0
-2,28,5.0
-2,29,5.0
-2,30,5.0
-2,31,5.0
-2,32,5.0
-2,33,5.0
-2,34,5.0
-2,35,5.0
-2,36,5.0
-2,37,5.0
-2,38,5.0
-2,39,5.0
-2,40,5.0
-2,41,5.0
-2,42,5.0
-2,43,5.0
-2,44,5.0
-2,45,5.0
-2,46,5.0
-2,47,5.0
-2,48,5.0
-2,49,5.0
-2,50,5.0
-2,51,5.0
-2,52,5.0
-2,53,5.0
-2,54,5.0
-2,55,5.0
-2,56,5.0
-2,57,5.0
-2,58,5.0
-2,59,5.0
-2,60,5.0
-2,61,5.0
-2,62,5.0
-2,63,5.0
-2,64,5.0
-2,65,5.0
-2,66,5.0
-2,67,5.0
-2,68,5.0
-2,69,5.0
-2,70,5.0
-2,71,5.0
-2,72,5.0
-2,73,5.0
-2,74,5.0
-2,75,5.0
-2,76,5.0
-2,77,5.0
-2,78,5.0
-2,79,5.0
-2,80,5.0
-2,81,5.0
-2,82,5.0
-2,83,5.0
-2,84,5.0
-2,85,5.0
-2,86,5.0
-2,87,5.0
-2,88,5.0
-2,89,5.0
-2,90,5.0
-2,91,5.0
-2,92,5.0
-2,93,5.0
-2,94,5.0
-2,95,5.0
-2,96,5.0
-2,97,5.0
-2,98,5.0
-2,99,5.0
-2,100,5.0
-1,0,5.0
-1,1,5.0
-1,2,5.0
-1,3,5.0
-1,4,5.0
-1,5,5.0
-1,6,5.0
-1,7,5.0
-1,8,5.0
-1,9,5.0
-1,10,5.0
-1,11,5.0
-1,12,5.0
-1,13,5.0
-1,14,5.0
-1,15,5.0
-1,16,5.0
-1,17,5.0
-1,18,5.0
-1,19,5.0
-1,20,5.0
-1,21,5.0
-1,22,5.0
-1,23,5.0
-1,24,5.0
-1,25,5.0
-1,26,5.0
-1,27,5.0
-1,28,5.0
-1,29,5.0
-1,30,5.0
-1,31,5.0
-1,32,5.0
-1,33,5.0
-1,34,5.0
-1,35,5.0
-1,36,5.0
-1,37,5.0
-1,38,5.0
-1,39,5.0
-1,40,5.0
-1,41,5.0
-1,42,5.0
-1,43,5.0
-1,44,5.0
-1,45,5.0
-1,46,5.0
-1,47,5.0
-1,48,5.0
-1,49,5.0
-1,50,5.0
-1,51,5.0
-1,52,5.0
-1,53,5.0
-1,54,5.0
-1,55,5.0
-1,56,5.0
-1,57,5.0
-1,58,5.0
-1,59,5.0
-1,60,5.0
-1,61,5.0
-1,62,5.0
-1,63,5.0
-1,64,5.0
-1,65,5.0
-1,66,5.0
-1,67,5.0
-1,68,5.0
-1,69,5.0
-1,70,5.0
-1,71,5.0
-1,72,5.0
-1,73,5.0
-1,74,5.0
-1,75,5.0
-1,76,5.0
-1,77,5.0
-1,78,5.0
-1,79,5.0
-1,80,5.0
-1,81,5.0
-1,82,5.0
-1,83,5.0
-1,84,5.0
-1,85,5.0
-1,86,5.0
-1,87,5.0
-1,88,5.0
-1,89,5.0
-1,90,5.0
-1,91,5.0
-1,92,5.0
-1,93,5.0
-1,94,5.0
-1,95,5.0
-1,96,5.0
-1,97,5.0
-1,98,5.0
-1,99,5.0
-1,100,5.0
0,0,0.0
0,1,0.005
0,2,0.01
0,3,0.015
0,4,0.02
0,5,0.025
0,6,0.03
0,7,0.035
0,8,0.04
0,9,0.045
0,10,0.05
0,11,0.055
0,12,0.06
0,13,0.065
0,14,0.07
0,15,0.075
0,16,0.08
0,17,0.085
0,18,0.09
0,19,0.095
0,20,0.1
0,21,0.105
0,22,0.11
0,23,0.115
0,24,0.12
0,25,0.125
0,26,0.13
0,27,0.135
0,28,0.14
0,29,0.145
0,30,0.15
0,31,0.155
0,32,0.16
0,33,0.165
0,34,0.17
0,35,0.175
0,36,0.18
0,37,0.185
0,38,0.19
0,39,0.195
0,40,0.2
0,41,0.205
0,42,0.21
0,43,0.215
0,44,0.22
0,45,0.225
0,46,0.23
0,47,0.235
0,48,0.24
0,49,0.245
0,50,0.25
0,51,0.255
0,52,0.26
0,53,0.265
0,54,0.27
0,55,0.275
0,56,0.28
0,57,0.285
0,58,0.29
0,59,0.295
0,60,0.3
0,61,0.305
0,62,0.31
0,63,0.315
0,64,0.32
0,65,0.325
0,66,0.33
0,67,0.335
0,68,0.34
0,69,0.345
0,70,0.35
0,71,0.355
0,72,0.36
0,73,0.365
0,74,0.37
0,75,0.375
0,76,0.38
0,77,0.385
0,78,0.39
0,79,0.395
0,80,0.4
0,81,0.405
0,82,0.41
0,83,0.415
0,84,0.42
0,85,0.425
0,86,0.43
0,87,0.435
0,88,0.44
0,89,0.445
0,90,0.45
0,91,0.455
0,92,0.46
0,93,0.465
0,94,0.47
0,95,0.475
0,96,0.48
0,97,0.485
0,98,0.49
0,99,0.495
0,100,0.5
1,0,0.0
1,1,0.005
1,2,0.01
1,3,0.015
1,4,0.02
1,5,0.025
1,6,0.03
1,7,0.035
1,8,0.04
1,9,0.045
1,10,0.05
1,11,0.055
1,12,0.06
1,13,0.065
1,14,0.07
1,15,0.075
1,16,0.08
1,17,0.085
1,18,0.09
1,19,0.095
1,20,0.1
1,21,0.105
1,22,0.11
1,23,0.115
1,24,0.12
1,25,0.125
1,26,0.13
1,27,0.135
1,28,0.14
1,29,0.145
1,30,0.15
1,31,0.155
1,32,0.16
1,33,0.165
1,34,0.17
1,35,0.175
1,36,0.18
1,37,0.185
1,38,0.19
1,39,0.195
1,40,0.2
1,41,0.205
1,42,0.21
1,43,0.215
1,44,0.22
1,45,0.225
1,46,0.23
1,47,0.235
1,48,0.24
1,49,0.245
1,50,0.25
1,51,0.255
1,52,0.26
1,53,0.265
1,54,0.27
1,55,0.275
1,56,0.28
1,57,0.285
1,58,0.29
1,59,0.295
1,60,0.3
1,61,0.305
1,62,0.31
1,63,0.315
1,64,0.32
1,65,0.325
1,66,0.33
1,67,0.335
1,68,0.34
1,69,0.345
1,70,0.35
1,71,0.355
1,72,0.36
1,73,0.365
1,74,0.37
1,75,0.375
1,76,0.38
1,77,0.385
1,78,0.39
1,79,0.395
1,80,0.4
1,81,0.405
1,82,0.41
1,83,0.415
1,84,0.42
1,85,0.425
1,86,0.43
1,87,0.435
1,88,0.44
1,89,0.445
1,90,0.45
1,91,0.455
1,92,0.46
1,93,0.465
1,94,0.47
1,95,0.475
1,96,0.48
1,97,0.485
1,98,0.49
1,99,0.495
1,100,0.5
2,0,0.0
2,1,0.005
2,2,0.01
2,3,0.015
2,4,0.02
2,5,0.025
2,6,0.03
2,7,0.035
2,8,0.04
2,9,0.045
2,10,0.05
2,11,0.055
2,12,0.06
2,13,0.065
2,14,0.07
2,15,0.075
2,16,0.08
2,17,0.085
2,18,0.09
2,19,0.095
2,20,0.1
2,21,0.105
2,22,0.11
2,23,0.115
2,24,0.12
2,25,0.125
2,26,0.13
2,27,0.135
2,28,0.14
2,29,0.145
2,30,0.15
2,31,0.155
2,32,0.16
2,33,0.165
2,34,0.17
2,35,0.175
2,36,0.18
2,37,0.185
2,38,0.19
2,39,0.195
2,40,0.2
2,41,0.205
2,42,0.21
2,43,0.215
2,44,0.22
2,45,0.225
2,46,0.23
2,47,0.235
2,48,0.24
2,49,0.245
2,50,0.25
2,51,0.255
2,52,0.26
2,53,0.265
2,54,0.27
2,55,0.275
2,56,0.28
2,57,0.285
2,58,0.29
2,59,0.295
2,60,0.3
2,61,0.305
2,62,0.31
2,63,0.315
2,64,0.32
2,65,0.325
2,66,0.33
2,67,0.335
2,68,0.34
2,69,0.345
2,70,0.35
2,71,0.355
2,72,0.36
2,73,0.365
2,74,0.37
2,75,0.375
2,76,0.38
2,77,0.385
2,78,0.39
2,79,0.395
2,80,0.4
2,81,0.405
2,82,0.41
2,83,0.415
2,84,0.42
2,85,0.425
2,86,0.43
2,87,0.435
2,88,0.44
2,89,0.445
2,90,0.45
2,91,0.455
2,92,0.46
2,93,0.465
2,94,0.47
2,95,0.475
2,96,0.48
2,97,0.485
2,98,0.49
2,99,0.495
2,100,0.5
3,0,0.0
3,1,0.005
3,2,0.01
3,3,0.015
3,4,0.02
3,5,0.025
3,6,0.03
3,7,0.035
3,8,0.04
3,9,0.045
3,10,0.05
3,11,0.055
3,12,0.06
3,13,0.065
3,14,0.07
3,15,0.075
3,16,0.08
3,17,0.085
3,18,0.09
3,19,0.095
3,20,0.1
3,21,0.105
3,22,0.11
3,23,0.115
3,24,0.12
3,25,0.125
3,26,0.13
3,27,0.135
3,28,0.14
3,29,0.145
3,30,0.15
3,31,0.155
3,32,0.16
3,33,0.165
3,34,0.17
3,35,0.175
3,36,0.18
3,37,0.185
3,38,0.19
3,39,0.195
3,40,0.2
3,41,0.205
3,42,0.21
3,43,0.215
3,44,0.22
3,45,0.225
3,46,0.23
3,47,0.235
3,48,0.24
3,49,0.245
3,50,0.25
3,51,0.255
3,52,0.26
3,53,0.265
3,54,0.27
3,55,0.275
3,56,0.28
3,57,0.285
3,58,0.29
3,59,0.295
3,60,0.3
3,61,0.305
3,62,0.31
3,63,0.315
3,64,0.32
3,65,0.325
3,66,0.33
3,67,0.335
3,68,0.34
3,69,0.345
3,70,0.35
3,71,0.355
3,72,0.36
3,73,0.365
3,74,0.37
3,75,0.375
3,76,0.38
3,77,0.385
3,78,0.39
3,79,0.395
3,80,0.4
3,81,0.405
3,82,0.41
3,83,0.415
3,84,0.42
3,85,0.425
3,86,0.43
3,87,0.435
3,88,0.44
3,89,0.445
3,90,0.45
3,91,0.455
3,92,0.46
3,93,0.465
3,94,0.47
3,95,0.475
3,96,0.48
3,97,0.485
3,98,0.49
3,99,0.495
3,100,0.5
4,0,0.0
4,1,0.005
4,2,0.01
4,3,0.015
4,4,0.02
4,5,0.025
4,6,0.03
4,7,0.035
4,8,0.04
4,9,0.045
4,10,0.05
4,11,0.055
4,12,0.06
4,13,0.065
4,14,0.07
4,15,0.075
4,16,0.08
4,17,0.085
4,18,0.09
4,19,0.095
4,20,0.1
4,21,0.105
4,22,0.11
4,23,0.115
4,24,0.12
4,25,0.125
4,26,0.13
4,27,0.135
4,28,0.14
4,29,0.145
4,30,0.15
4,31,0.155
4,32,0.16
4,33,0.165
4,34,0.17
4,35,0.175
4,36,0.18
4,37,0.185
4,38,0.19
4,39,0.195
4,40,0.2
4,41,0.205
4,42,0.21
4,43,0.215
4,44,0.22
4,45,0.225
4,46,0.23
4,47,0.235
4,48,0.24
4,49,0.245
4,50,0.25
4,51,0.255
4,52,0.26
4,53,0.265
4,54,0.27
4,55,0.275
4,56,0.28
4,57,0.285
4,58,0.29
4,59,0.295
4,60,0.3
4,61,0.305
4,62,0.31
4,63,0.315
4,64,0.32
4,65,0.325
4,66,0.33
4,67,0.335
4,68,0.34
4,69,0.345
4,70,0.35
4,71,0.355
4,72,0.36
4,73,0.365
4,74,0.37
4,75,0.375
4,76,0.38
4,77,0.385
4,78,0.39
4,79,0.395
4,80,0.4
4,81,0.405
4,82,0.41
4,83,0.415
4,84,0.42
4,85,0.425
4,86,0.43
4,87,0.435
4,88,0.44
4,89,0.445
4,90,0.45
4,91,0.455
4,92,0.46
4,93,0.465
4,94,0.47
4,95,0.475
4,96,0.48
4,97,0.485
4,98,0.49
4,99,0.495
4,100,0.5
5,0,0.0
5,1,0.005
5,2,0.01
5,3,0.015
5,4,0.02
5,5,0.025
5,6,0.03
5,7,0.035
5,8,0.04
5,9,0.045
5,10,0.05
5,11,0.055
5,12,0.06
5,13,0.065
5,14,0.07
5,15,0.075
5,16,0.08
5,17,0.085
5,18,0.09
5,19,0.095
5,20,0.1
5,21,0.105
5,22,0.11
5,23,0.115
5,24,0.12
5,25,0.125
5,26,0.13
5,27,0.135
5,28,0.14
5,29,0.145
5,30,0.15
5,31,0.155
5,32,0.16
5,33,0.165
5,34,0.17
5,35,0.175
5,36,0.18
5,37,0.185
5,38,0.19
5,39,0.195
5,40,0.2
5,41,0.205
5,42,0.21
5,43,0.215
5,44,0.22
5,45,0.225
5,46,0.23
5,47,0.235
5,48,0.24
5,49,0.245
5,50,0.25
5,51,0.255
5,52,0.26
5,53,0.265
5,54,0.27
5,55,0.275
5,56,0.28
5,57,0.285
5,58,0.29
5,59,0.295
5,60,0.3
5,61,0.305
5,62,0.31
5,63,0.315
5,64,0.32
5,65,0.325
5,66,0.33
5,67,0.335
5,68,0.34
5,69,0.345
5,70,0.35
5,71,0.355
5,72,0.36
5,73,0.365
5,74,0.37
5,75,0.375
5,76,0.38
5,77,0.385
5,78,0.39
5,79,0.395
5,80,0.4
5,81,0.405
5,82,0.41
5,83,0.415
5,84,0.42
5,85,0.425
5,86,0.43
5,87,0.435
5,88,0.44
5,89,0.445
5,90,0.45
5,91,0.455
5,92,0.46
5,93,0.465
5,94,0.47
5,95,0.475
5,96,0.48
5,97,0.485
5,98,0.49
5,99,0.495
5,100,0.5
6,0,0.0
6,1,0.005
6,2,0.01
6,3,0.015
6,4,0.02
6,5,0.025
6,6,0.03
6,7,0.035
6,8,0.04
6,9,0.045
6,10,0.05
6,11,0.055
6,12,0.06
6,13,0.065
6,14,0.07
6,15,0.075
6,16,0.08
6,17,0.085
6,18,0.09
6,19,0.095
6,20,0.1
6,21,0.105
6,22,0.11
6,23,0.115
6,24,0.12
6,25,0.125
6,26,0.13
6,27,0.135
6,28,0.14
6,29,0.145
6,30,0.15
6,31,0.155
6,32,0.16
6,33,0.165
6,34,0.17
6,35,0.175
6,36,0.18
6,37,0.185
6,38,0.19
6,39,0.195
6,40,0.2
6,41,0.205
6,42,0.21
6,43,0.215
6,44,0.22
6,45,0.225
6,46,0.23
6,47,0.235
6,48,0.24
6,49,0.245
6,50,0.25
6,51,0.255
6,52,0.26
6,53,0.265
6,54,0.27
6,55,0.275
6,56,0.28
6,57,0.285
6,58,0.29
6,59,0.295
6,60,0.3
6,61,0.305
6,62,0.31
6,63,0.315
6,64,0.32
6,65,0.325
6,66,0.33
6,67,0.335
6,68,0.34
6,69,0.345
6,70,0.35
6,71,0.355
6,72,0.36
6,73,0.365
6,74,0.37
6,75,0.375
6,76,0.38
6,77,0.385
6,78,0.39
6,79,0.395
6,80,0.4
6,81,0.405
6,82,0.41
6,83,0.415
6,84,0.42
6,85,0.425
6,86,0.43
6,87,0.435
6,88,0.44
6,89,0.445
6,90,0.45
6,91,0.455
6,92,0.46
6,93,0.465
6,94,0.47
6,95,0.475
6,96,0.48
6,97,0.485
6,98,0.49
6,99,0.495
6,100,0.5
7,0,0.0
7,1,0.005
7,2,0.01
7,3,0.015
7,4,0.02
7,5,0.025
7,6,0.03
7,7,0.035
7,8,0.04
7,9,0.045
7,10,0.05
7,11,0.055
7,12,0.06
7,13,0.065
7,14,0.07
7,15,0.075
7,16,0.08
7,17,0.085
7,18,0.09
7,19,0.095
7,20,0.1
7,21,0.105
7,22,0.11
7,23,0.115
7,24,0.12
7,25,0.125
7,26,0.13
7,27,0.135
7,28,0.14
7,29,0.145
7,30,0.15
7,31,0.155
7,32,0.16
7,33,0.165
7,34,0.17
7,35,0.175
7,36,0.18
7,37,0.185
7,38,0.19
7,39,0.195
7,40,0.2
7,41,0.205
7,42,0.21
7,43,0.215
7,44,0.22
7,45,0.225
7,46,0.23
7,47,0.235
7,48,0.24
7,49,0.245
7,50,0.25
7,51,0.255
7,52,0.26
7,53,0.265
7,54,0.27
7,55,0.275
7,56,0.28
7,57,0.285
7,58,0.29
7,59,0.295
7,60,0.3
7,61,0.305
7,62,0.31
7,63,0.315
7,64,0.32
7,65,0.325
7,66,0.33
7,67,0.335
7,68,0.34
7,69,0.345
7,70,0.35
7,71,0.355
7,72,0.36
7,73,0.365
7,74,0.37
7,75,0.375
7,76,0.38
7,77,0.385
7,78,0.39
7,79,0.395
7,80,0.4
7,81,0.405
7,82,0.41
7,83,0.415
7,84,0.42
7,85,0.425
7,86,0.43
7,87,0.435
7,88,0.44
7,89,0.445
7,90,0.45
7,91,0.455
7,92,0.46
7,93,0.465
7,94,0.47
7,95,0.475
7,96,0.48
7,97,0.485
7,98,0.49
7,99,0.495
7,100,0.5
8,0,0.0
8,1,0.005
8,2,0.01
8,3,0.015
8,4,0.02
8,5,0.025
8,6,0.03
8,7,0.035
8,8,0.04
8,9,0.045
8,10,0.05
8,11,0.055
8,12,0.06
8,13,0.065
8,14,0.07
8,15,0.075
8,16,0.08
8,17,0.085
8,18,0.09
8,19,0.095
8,20,0.1
8,21,0.105
8,22,0.11
8,23,0.115
8,24,0.12
8,25,0.125
8,26,0.13
8,27,0.135
8,28,0.14
8,29,0.145
8,30,0.15
8,31,0.155
8,32,0.16
8,33,0.165
8,34,0.17
8,35,0.175
8,36,0.18
8,37,0.185
8,38,0.19
8,39,0.195
8,40,0.2
8,41,0.205
8,42,0.21
8,43,0.215
8,44,0.22
8,45,0.225
8,46,0.23
8,47,0.235
8,48,0.24
8,49,0.245
8,50,0.25
8,51,0.255
8,52,0.26
8,53,0.265
8,54,0.27
8,55,0.275
8,56,0.28
8,57,0.285
8,58,0.29
8,59,0.295
8,60,0.3
8,61,0.305
8,62,0.31
8,63,0.315
8,64,0.32
8,65,0.325
8,66,0.33
8,67,0.335
8,68,0.34
8,69,0.345
8,70,0.35
8,71,0.355
8,72,0.36
8,73,0.365
8,74,0.37
8,75,0.375
8,76,0.38
8,77,0.385
8,78,0.39
8,79,0.395
8,80,0.4
8,81,0.405
8,82,0.41
8,83,0.415
8,84,0.42
8,85,0.425
8,86,0.43
8,87,0.435
8,88,0.44
8,89,0.445
8,90,0.45
8,91,0.455
8,92,0.46
8,93,0.465
8,94,0.47
8,95,0.475
8,96,0.48
8,97,0.485
8,98,0.49
8,99,0.495
8,100,0.5
9,0,0.0
9,1,0.005
9,2,0.01
9,3,0.015
9,4,0.02
9,5,0.025
9,6,0.03
9,7,0.035
9,8,0.04
9,9,0.045
9,10,0.05
9,11,0.055
9,12,0.06
9,13,0.065
9,14,0.07
9,15,0.075
9,16,0.08
9,17,0.085
9,18,0.09
9,19,0.095
9,20,0.1
9,21,0.105
9,22,0.11
9,23,0.115
9,24,0.12
9,25,0.125
9,26,0.13
9,27,0.135
9,28,0.14
9,29,0.145
9,30,0.15
9,31,0.155
9,32,0.16
9,33,0.165
9,34,0.17
9,35,0.175
9,36,0.18
9,37,0.185
9,38,0.19
9,39,0.195
9,40,0.2
9,41,0.205
9,42,0.21
9,43,0.215
9,44,0.22
9,45,0.225
9,46,0.23
9,47,0.235
9,48,0.24
9,49,0.245
9,50,0.25
9,51,0.255
9,52,0.26
9,53,0.265
9,54,0.27
9,55,0.275
9,56,0.28
9,57,0.285
9,58,0.29
9,59,0.295
9,60,0.3
9,61,0.305
9,62,0.31
9,63,0.315
9,64,0.32
9,65,0.325
9,66,0.33
9,67,0.335
9,68,0.34
9,69,0.345
9,70,0.35
9,71,0.355
9,72,0.36
9,73,0.365
9,74,0.37
9,75,0.375
9,76,0.38
9,77,0.385
9,78,0.39
9,79,0.395
9,80,0.4
9,81,0.405
9,82,0.41
9,83,0.415
9,84,0.42
9,85,0.425
9,86,0.43
9,87,0.435
9,88,0.44
9,89,0.445
9,90,0.45
9,91,0.455
9,92,0.46
9,93,0.465
9,94,0.47
9,95,0.475
9,96,0.48
9,97,0.485
9,98,0.49
9,99,0.495
9,100,0.5
10,0,0.0
10,1,0.005
10,2,0.01
10,3,0.015
10,4,0.02
10,5,0.025
10,6,0.03
10,7,0.035
10,8,0.04
10,9,0.045
10,10,0.05
10,11,0.055
10,12,0.06
10,13,0.065
10,14,0.07
10,15,0.075
10,16,0.08
10,17,0.085
10,18,0.09
10,19,0.095
10,20,0.1
10,21,0.105
10,22,0.11
10,23,0.115
10,24,0.12
10,25,0.125
10,26,0.13
10,27,0.135
10,28,0.14
10,29,0.145
10,30,0.15
10,31,0.155
10,32,0.16
10,33,0.165
10,34,0.17
10,35,0.175
10,36,0.18
10,37,0.185
10,38,0.19
10,39,0.195
10,40,0.2
10,41,0.205
10,42,0.21
10,43,0.215
10,44,0.22
10,45,0.225
10,46,0.23
10,47,0.235
10,48,0.24
10,49,0.245
10,50,0.25
10,51,0.255
10,52,0.26
10,53,0.265
10,54,0.27
10,55,0.275
10,56,0.28
10,57,0.285
10,58,0.29
10,59,0.295
10,60,0.3
10,61,0.305
10,62,0.31
10,63,0.315
10,64,0.32
10,65,0.325
10,66,0.33
10,67,0.335
10,68,0.34
10,69,0.345
10,70,0.35
10,71,0.355
10,72,0.36
10,73,0.365
10,74,0.37
10,75,0.375
10,76,0.38
10,77,0.385
10,78,0.39
10,79,0.395
10,80,0.4
10,81,0.405
10,82,0.41
10,83,0.415
10,84,0.42
10,85,0.425
10,86,0.43
10,87,0.435
10,88,0.44
10,89,0.445
10,90,0.45
10,91,0.455
10,92,0.46
10,93,0.465
10,94,0.47
10,95,0.475
10,96,0.48
10,97,0.485
10,98,0.49
10,99,0.495
10,100,0.5
11,0,0.0
11,1,0.005
11,2,0.01
11,3,0.015
11,4,0.02
11,5,0.025
11,6,0.03
11,7,0.035
11,8,0.04
11,9,0.045
11,10,0.05
11,11,0.055
11,12,0.06
11,13,0.065
11,14,0.07
11,15,0.075
11,16,0.08
11,17,0.085
11,18,0.09
11,19,0.095
11,20,0.1
11,21,0.105
11,22,0.11
11,23,0.115
11,24,0.12
11,25,0.125
11,26,0.13
11,27,0.135
11,28,0.14
11,29,0.145
11,30,0.15
11,31,0.155
11,32,0.16
11,33,0.165
11,34,0.17
11,35,0.175
11,36,0.18
11,37,0.185
11,38,0.19
11,39,0.195
11,40,0.2
11,41,0.205
11,42,0.21
11,43,0.215
11,44,0.22
11,45,0.225
11,46,0.23
11,47,0.235
11,48,0.24
11,49,0.245
11,50,0.25
11,51,0.255
11,52,0.26
11,53,0.265
11,54,0.27
11,55,0.275
11,56,0.28
11,57,0.285
11,58,0.29
11,59,0.295
11,60,0.3
11,61,0.305
11,62,0.31
11,63,0.315
11,64,0.32
11,65,0.325
11,66,0.33
11,67,0.335
11,68,0.34
11,69,0.345
11,70,0.35
11,71,0.355
11,72,0.36
11,73,0.365
11,74,0.37
11,75,0.375
11,76,0.38
11,77,0.385
11,78,0.39
11,79,0.395
11,80,0.4
11,81,0.405
11,82,0.41
11,83,0.415
11,84,0.42
11,85,0.425
11,86,0.43
11,87,0.435
11,88,0.44
11,89,0.445
11,90,0.45
11,91,0.455
11,92,0.46
11,93,0.465
11,94,0.47
11,95,0.475
11,96,0.48
11,97,0.485
11,98,0.49
11,99,0.495
11,100,0.5
12,0,0.0
12,1,0.005
12,2,0.01
12,3,0.015
12,4,0.02
12,5,0.025
12,6,0.03
12,7,0.035
12,8,0.04
12,9,0.045
12,10,0.05
12,11,0.055
12,12,0.06
12,13,0.065
12,14,0.07
12,15,0.075
12,16,0.08
12,17,0.085
12,18,0.09
12,19,0.095
12,20,0.1
12,21,0.105
12,22,0.11
12,23,0.115
12,24,0.12
12,25,0.125
12,26,0.13
12,27,0.135
12,28,0.14
12,29,0.145
12,30,0.15
12,31,0.155
12,32,0.16
12,33,0.165
12,34,0.17
12,35,0.175
12,36,0.18
12,37,0.185
12,38,0.19
12,39,0.195
12,40,0.2
12,41,0.205
12,42,0.21
12,43,0.215
12,44,0.22
12,45,0.225
12,46,0.23
12,47,0.235
12,48,0.24
12,49,0.245
12,50,0.25
12,51,0.255
12,52,0.26
12,53,0.265
12,54,0.27
12,55,0.275
12,56,0.28
12,57,0.285
12,58,0.29
12,59,0.295
12,60,0.3
12,61,0.305
12,62,0.31
12,63,0.315
12,64,0.32
12,65,0.325
12,66,0.33
12,67,0.335
12,68,0.34
12,69,0.345
12,70,0.35
12,71,0.355
12,72,0.36
12,73,0.365
12,74,0.37
12,75,0.375
12,76,0.38
12,77,0.385
12,78,0.39
12,79,0.395
12,80,0.4
12,81,0.405
12,82,0.41
12,83,0.415
12,84,0.42
12,85,0.425
12,86,0.43
12,87,0.435
12,88,0.44
12,89,0.445
12,90,0.45
12,91,0.455
12,92,0.46
12,93,0.465
12,94,0.47
12,95,0.475
12,96,0.48
12,97,0.485
12,98,0.49
12,99,0.495
12,100,0.5
13,0,0.0
13,1,0.005
13,2,0.01
13,3,0.015
13,4,0.02
13,5,0.025
13,6,0.03
13,7,0.035
13,8,0.04
13,9,0.045
13,10,0.05
13,11,0.055
13,12,0.06
13,13,0.065
13,14,0.07
13,15,0.075
13,16,0.08
13,17,0.085
13,18,0.09
13,19,0.095
13,20,0.1
13,21,0.105
13,22,0.11
13,23,0.115
13,24,0.12
13,25,0.125
13,26,0.13
13,27,0.135
13,28,0.14
13,29,0.145
13,30,0.15
13,31,0.155
13,32,0.16
13,33,0.165
13,34,0.17
13,35,0.175
13,36,0.18
13,37,0.185
13,38,0.19
13,39,0.195
13,40,0.2
13,41,0.205
13,42,0.21
13,43,0.215
13,44,0.22
13,45,0.225
13,46,0.23
13,47,0.235
13,48,0.24
13,49,0.245
13,50,0.25
13,51,0.255
13,52,0.26
13,53,0.265
13,54,0.27
13,55,0.275
13,56,0.28
13,57,0.285
13,58,0.29
13,59,0.295
13,60,0.3
13,61,0.305
13,62,0.31
13,63,0.315
13,64,0.32
13,65,0.325
13,66,0.33
13,67,0.335
13,68,0.34
13,69,0.345
13,70,0.35
13,71,0.355
13,72,0.36
13,73,0.365
13,74,0.37
13,75,0.375
13,76,0.38
13,77,0.385
13,78,0.39
13,79,0.395
13,80,0.4
13,81,0.405
13,82,0.41
13,83,0.415
13,84,0.42
13,85,0.425
13,86,0.43
13,87,0.435
13,88,0.44
13,89,0.445
13,90,0.45
13,91,0.455
13,92,0.46
13,93,0.465
13,94,0.47
13,95,0.475
13,96,0.48
13,97,0.485
13,98,0.49
13,99,0.495
13,100,0.5
14,0,0.0
14,1,0.005
14,2,0.01
14,3,0.015
14,4,0.02
14,5,0.025
14,6,0.03
14,7,0.035
14,8,0.04
14,9,0.045
14,10,0.05
14,11,0.055
14,12,0.06
14,13,0.065
14,14,0.07
14,15,0.075
14,16,0.08
14,17,0.085
14,18,0.09
14,19,0.095
14,20,0.1
14,21,0.105
14,22,0.11
14,23,0.115
14,24,0.12
14,25,0.125
14,26,0.13
14,27,0.135
14,28,0.14
14,29,0.145
14,30,0.15
14,31,0.155
14,32,0.16
14,33,0.165
14,34,0.17
14,35,0.175
14,36,0.18
14,37,0.185
14,38,0.19
14,39,0.195
14,40,0.2
14,41,0.205
14,42,0.21
14,43,0.215
14,44,0.22
14,45,0.225
14,46,0.23
14,47,0.235
14,48,0.24
14,49,0.245
14,50,0.25
14,51,0.255
14,52,0.26
14,53,0.265
14,54,0.27
14,55,0.275
14,56,0.28
14,57,0.285
14,58,0.29
14,59,0.295
14,60,0.3
14,61,0.305
14,62,0.31
14,63,0.315
14,64,0.32
14,65,0.325
14,66,0.33
14,67,0.335
14,68,0.34
14,69,0.345
14,70,0.35
14,71,0.355
14,72,0.36
14,73,0.365
14,74,0.37
14,75,0.375
14,76,0.38
14,77,0.385
14,78,0.39
14,79,0.395
14,80,0.4
14,81,0.405
14,82,0.41
14,83,0.415
14,84,0.42
14,85,0.425
14,86,0.43
14,87,0.435
14,88,0.44
14,89,0.445
14,90,0.45
14,91,0.455
14,92,0.46
14,93,0.465
14,94,0.47
14,95,0.475
14,96,0.48
14,97,0.485
14,98,0.49
14,99,0.495
14,100,0.5
15,0,0.0
15,1,0.005
15,2,0.01
15,3,0.015
15,4,0.02
15,5,0.025
15,6,0.03
15,7,0.035
15,8,0.04
15,9,0.045
15,10,0.05
15,11,0.055
15,12,0.06
15,13,0.065
15,14,0.07
15,15,0.075
15,16,0.08
15,17,0.085
15,18,0.09
15,19,0.095
15,20,0.1
15,21,0.105
15,22,0.11
15,23,0.115
15,24,0.12
15,25,0.125
15,26,0.13
15,27,0.135
15,28,0.14
15,29,0.145
15,30,0.15
15,31,0.155
15,32,0.16
15,33,0.165
15,34,0.17
15,35,0.175
15,36,0.18
15,37,0.185
15,38,0.19
15,39,0.195
15,40,0.2
15,41,0.205
15,42,0.21
15,43,0.215
15,44,0.22
15,45,0.225
15,46,0.23
15,47,0.235
15,48,0.24
15,49,0.245
15,50,0.25
15,51,0.255
15,52,0.26
15,53,0.265
15,54,0.27
15,55,0.275
15,56,0.28
15,57,0.285
15,58,0.29
15,59,0.295
15,60,0.3
15,61,0.305
15,62,0.31
15,63,0.315
15,64,0.32
15,65,0.325
15,66,0.33
15,67,0.335
15,68,0.34
15,69,0.345
15,70,0.35
15,71,0.355
15,72,0.36
15,73,0.365
15,74,0.37
15,75,0.375
15,76,0.38
15,77,0.385
15,78,0.39
15,79,0.395
15,80,0.4
15,81,0.405
15,82,0.41
15,83,0.415
15,84,0.42
15,85,0.425
15,86,0.43
15,87,0.435
15,88,0.44
15,89,0.445
15,90,0.45
15,91,0.455
15,92,0.46
15,93,0.465
15,94,0.47
15,95,0.475
15,96,0.48
15,97,0.485
15,98,0.49
15,99,0.495
15,100,0.5
16,0,0.0
16,1,0.005
16,2,0.01
16,3,0.015
16,4,0.02
16,5,0.025
16,6,0.03
16,7,0.035
16,8,0.04
16,9,0.045
16,10,0.05
16,11,0.055
16,12,0.06
16,13,0.065
16,14,0.07
16,15,0.075
16,16,0.08
16,17,0.085
16,18,0.09
16,19,0.095
16,20,0.1
16,21,0.105
16,22,0.11
16,23,0.115
16,24,0.12
16,25,0.125
16,26,0.13
16,27,0.135
16,28,0.14
16,29,0.145
16,30,0.15
16,31,0.155
16,32,0.16
16,33,0.165
16,34,0.17
16,35,0.175
16,36,0.18
16,37,0.185
16,38,0.19
16,39,0.195
16,40,0.2
16,41,0.205
16,42,0.21
16,43,0.215
16,44,0.22
16,45,0.225
16,46,0.23
16,47,0.235
16,48,0.24
16,49,0.245
16,50,0.25
16,51,0.255
16,52,0.26
16,53,0.265
16,54,0.27
16,55,0.275
16,56,0.28
16,57,0.285
16,58,0.29
16,59,0.295
16,60,0.3
16,61,0.305
16,62,0.31
16,63,0.315
16,64,0.32
16,65,0.325
16,66,0.33
16,67,0.335
16,68,0.34
16,69,0.345
16,70,0.35
16,71,0.355
16,72,0.36
16,73,0.365
16,74,0.37
16,75,0.375
16,76,0.38
16,77,0.385
16,78,0.39
16,79,0.395
16,80,0.4
16,81,0.405
16,82,0.41
16,83,0.415
16,84,0.42
16,85,0.425
16,86,0.43
16,87,0.435
16,88,0.44
16,89,0.445
16,90,0.45
16,91,0.455
16,92,0.46
16,93,0.465
16,94,0.47
16,95,0.475
16,96,0.48
16,97,0.485
16,98,0.49
16,99,0.495
16,100,0.5
17,0,0.0
17,1,0.005
17,2,0.01
17,3,0.015
17,4,0.02
17,5,0.025
17,6,0.03
17,7,0.035
17,8,0.04
17,9,0.045
17,10,0.05
17,11,0.055
17,12,0.06
17,13,0.065
17,14,0.07
17,15,0.075
17,16,0.08
17,17,0.085
17,18,0.09
17,19,0.095
17,20,0.1
17,21,0.105
17,22,0.11
17,23,0.115
17,24,0.12
17,25,0.125
17,26,0.13
17,27,0.135
17,28,0.14
17,29,0.145
17,30,0.15
17,31,0.155
17,32,0.16
17,33,0.165
17,34,0.17
17,35,0.175
17,36,0.18
17,37,0.185
17,38,0.19
17,39,0.195
17,40,0.2
17,41,0.205
17,42,0.21
17,43,0.215
17,44,0.22
17,45,0.225
17,46,0.23
17,47,0.235
17,48,0.24
17,49,0.245
17,50,0.25
17,51,0.255
17,52,0.26
17,53,0.265
17,54,0.27
17,55,0.275
17,56,0.28
17,57,0.285
17,58,0.29
17,59,0.295
17,60,0.3
17,61,0.305
17,62,0.31
17,63,0.315
17,64,0.32
17,65,0.325
17,66,0.33
17,67,0.335
17,68,0.34
17,69,0.345
17,70,0.35
17,71,0.355
17,72,0.36
17,73,0.365
17,74,0.37
17,75,0.375
17,76,0.38
17,77,0.385
17,78,0.39
17,79,0.395
17,80,0.4
17,81,0.405
17,82,0.41
17,83,0.415
17,84,0.42
17,85,0.425
17,86,0.43
17,87,0.435
17,88,0.44
17,89,0.445
17,90,0.45
17,91,0.455
17,92,0.46
17,93,0.465
17,94,0.47
17,95,0.475
17,96,0.48
17,97,0.485
17,98,0.49
17,99,0.495
17,100,0.5
18,0,0.0
18,1,0.005
18,2,0.01
18,3,0.015
18,4,0.02
18,5,0.025
18,6,0.03
18,7,0.035
18,8,0.04
18,9,0.045
18,10,0.05
18,11,0.055
18,12,0.06
18,13,0.065
18,14,0.07
18,15,0.075
18,16,0.08
18,17,0.085
18,18,0.09
18,19,0.095
18,20,0.1
18,21,0.105
18,22,0.11
18,23,0.115
18,24,0.12
18,25,0.125
18,26,0.13
18,27,0.135
18,28,0.14
18,29,0.145
18,30,0.15
18,31,0.155
18,32,0.16
18,33,0.165
18,34,0.17
18,35,0.175
18,36,0.18
18,37,0.185
18,38,0.19
18,39,0.195
18,40,0.2
18,41,0.205
18,42,0.21
18,43,0.215
18,44,0.22
18,45,0.225
18,46,0.23
18,47,0.235
18,48,0.24
18,49,0.245
18,50,0.25
18,51,0.255
18,52,0.26
18,53,0.265
18,54,0.27
18,55,0.275
18,56,0.28
18,57,0.285
18,58,0.29
18,59,0.295
18,60,0.3
18,61,0.305
18,62,0.31
18,63,0.315
18,64,0.32
18,65,0.325
18,66,0.33
18,67,0.335
18,68,0.34
18,69,0.345
18,70,0.35
18,71,0.355
18,72,0.36
18,73,0.365
18,74,0.37
18,75,0.375
18,76,0.38
18,77,0.385
18,78,0.39
18,79,0.395
18,80,0.4
18,81,0.405
18,82,0.41
18,83,0.415
18,84,0.42
18,85,0.425
18,86,0.43
18,87,0.435
18,88,0.44
18,89,0.445
18,90,0.45
18,91,0.455
18,92,0.46
18,93,0.465
18,94,0.47
18,95,0.475
18,96,0.48
18,97,0.485
18,98,0.49
18,99,0.495
18,100,0.5
19,0,0.0
19,1,0.005
19,2,0.01
19,3,0.015
19,4,0.02
19,5,0.025
19,6,0.03
19,7,0.035
19,8,0.04
19,9,0.045
19,10,0.05
19,11,0.055
19,12,0.06
19,13,0.065
19,14,0.07
19,15,0.075
19,16,0.08
19,17,0.085
19,18,0.09
19,19,0.095
19,20,0.1
19,21,0.105
19,22,0.11
19,23,0.115
19,24,0.12
19,25,0.125
19,26,0.13
19,27,0.135
19,28,0.14
19,29,0.145
19,30,0.15
19,31,0.155
19,32,0.16
19,33,0.165
19,34,0.17
19,35,0.175
19,36,0.18
19,37,0.185
19,38,0.19
19,39,0.195
19,40,0.2
19,41,0.205
19,42,0.21
19,43,0.215
19,44,0.22
19,45,0.225
19,46,0.23
19,47,0.235
19,48,0.24
19,49,0.245
19,50,0.25
19,51,0.255
19,52,0.26
19,53,0.265
19,54,0.27
19,55,0.275
19,56,0.28
19,57,0.285
19,58,0.29
19,59,0.295
19,60,0.3
19,61,0.305
19,62,0.31
19,63,0.315
19,64,0.32
19,65,0.325
19,66,0.33
19,67,0.335
19,68,0.34
19,69,0.345
19,70,0.35
19,71,0.355
19,72,0.36
19,73,0.365
19,74,0.37
19,75,0.375
19,76,0.38
19,77,0.385
19,78,0.39
19,79,0.395
19,80,0.4
19,81,0.405
19,82,0.41
19,83,0.415
19,84,0.42
19,85,0.425
19,86,0.43
19,87,0.435
19,88,0.44
19,89,0.445
19,90,0.45
19,91,0.455
19,92,0.46
19,93,0.465
19,94,0.47
19,95,0.475
19,96,0.48
19,97,0.485
19,98,0.49
19,99,0.495
19,100,0.5
20,0,0.0
20,1,0.005
20,2,0.01
20,3,0.015
20,4,0.02
20,5,0.025
20,6,0.03
20,7,0.035
20,8,0.04
20,9,0.045
20,10,0.05
20,11,0.055
20,12,0.06
20,13,0.065
20,14,0.07
20,15,0.075
20,16,0.08
20,17,0.085
20,18,0.09
20,19,0.095
20,20,0.1
20,21,0.105
20,22,0.11
20,23,0.115
20,24,0.12
20,25,0.125
20,26,0.13
20,27,0.135
20,28,0.14
20,29,0.145
20,30,0.15
20,31,0.155
20,32,0.16
20,33,0.165
20,34,0.17
20,35,0.175
20,36,0.18
20,37,0.185
20,38,0.19
20,39,0.195
20,40,0.2
20,41,0.205
20,42,0.21
20,43,0.215
20,44,0.22
20,45,0.225
20,46,0.23
20,47,0.235
20,48,0.24
20,49,0.245
20,50,0.25
20,51,0.255
20,52,0.26
20,53,0.265
20,54,0.27
20,55,0.275
20,56,0.28
20,57,0.285
20,58,0.29
20,59,0.295
20,60,0.3
20,61,0.305
20,62,0.31
20,63,0.315
20,64,0.32
20,65,0.325
20,66,0.33
20,67,0.335
20,68,0.34
20,69,0.345
20,70,0.35
20,71,0.355
20,72,0.36
20,73,0.365
20,74,0.37
20,75,0.375
20,76,0.38
20,77,0.385
20,78,0.39
20,79,0.395
20,80,0.4
20,81,0.405
20,82,0.41
20,83,0.415
20,84,0.42
20,85,0.425
20,86,0.43
20,87,0.435
20,88,0.44
20,89,0.445
20,90,0.45
20,91,0.455
20,92,0.46
20,93,0.465
20,94,0.47
20,95,0.475
20,96,0.48
20,97,0.485
20,98,0.49
20,99,0.495
20,100,0.5
21,0,5.0
21,1,5.0
21,2,5.0
21,3,5.0
21,4,5.0
21,5,5.0
21,6,5.0
21,7,5.0
21,8,5.0
21,9,5.0
21,10,5.0
21,11,5.0
21,12,5.0
21,13,5.0
21,14,5.0
21,15,5.0
21,16,5.0
21,17,5.0
21,18,5.0
21,19,5.0
21,20,5.0
21,21,5.0
21,22,5.0
21,23,5.0
21,24,5.0
21,25,5.0
21,26,5.0
21,27,5.0
21,28,5.0
21,29,5.0
21,30,5.0
21,31,5.0
21,32,5.0
21,33,5.0
21,34,5.0
21,35,5.0
21,36,5.0
21,37,5.0
21,38,5.0
21,39,5.0
21,40,5.0
21,41,5.0
21,42,5.0
21,43,5.0
21,44,5.0
21,45,5.0
21,46,5.0
21,47,5.0
21,48,5.0
21,49,5.0
21,50,5.0
21,51,5.0
21,52,5.0
21,53,5.0
21,54,5.0
21,55,5.0
21,56,5.0
21,57,5.0
21,58,5.0
21,59,5.0
21,60,5.0
21,61,5.0
21,62,5.0
21,63,5.0
21,64,5.0
21,65,5.0
21,66,5.0
21,67,5.0
21,68,5.0
21,69,5.0
21,70,5.0
21,71,5.0
21,72,5.0
21,73,5.0
21,74,5.0
21,75,5.0
21,76,5.0
21,77,5.0
21,78,5.0
21,79,5.0
21,80,5.0
21,81,5.0
21,82,5.0
21,83,5.0
21,84,5.0
21,85,5.0
21,86,5.0
21,87,5.0
21,88,5.0
21,89,5.0
21,90,5.0
21,91,5.0
21,92,5.0
21,93,5.0
21,94,5.0
21,95,5.0
21,96,5.0
21,97,5.0
21,98,5.0
21,99,5.0
21,100,5.0
22,0,5.0
22,1,5.0
22,2,5.0
22,3,5.0
22,4,5.0
22,5,5.0
22,6,5.0
22,7,5.0
22,8,5.0
22,9,5.0
22,10,5.0
22,11,5.0
22,12,5.0
22,13,5.0
22,14,5.0
22,15,5.0
22,16,5.0
22,17,5.0
22,18,5.0
22,19,5.0
22,20,5.0
22,21,5.0
22,22,5.0
22,23,5.0
22,24,5.0
22,25,5.0
22,26,5.0
22,27,5.0
22,28,5.0
22,29,5.0
22,30,5.0
22,31,5.0
22,32,5.0
22,33,5.0
22,34,5.0
22,35,5.0
22,36,5.0
22,37,5.0
22,38,5.0
22,39,5.0
22,40,5.0
22,41,5.0
22,42,5.0
22,43,5.0
22,44,5.0
22,45,5.0
22,46,5.0
22,47,5.0
22,48,5.0
22,49,5.0
22,50,5.0
22,51,5.0
22,52,5.0
22,53,5.0
22,54,5.0
22,55,5.0
22,56,5.0
22,57,5.0
22,58,5.0
22,59,5.0
22,60,5.0
22,61,5.0
22,62,5.0
22,63,5.0
22,64,5.0
22,65,5.0
22,66,5.0
22,67,5.0
22,68,5.0
22,69,5.0
22,70,5.0
22,71,5.0
22,72,5.0
22,73,5.0
22,74,5.0
22,75,5.0
22,76,5.0
22,77,5.0
22,78,5.0
22,79,5.0
22,80,5.0
22,81,5.0
22,82,5.0
22,83,5.0
22,84,5.0
22,85,5.0
22,86,5.0
22,87,5.0
22,88,5.0
22,89,5.0
22,90,5.0
22,91,5.0
22,92,5.0
22,93,5.0
22,94,5.0
22,95,5.0
22,96,5.0
22,97,5.0
22,98,5.0
22,99,5.0
22,100,5.0
23,0,5.0
23,1,5.0
23,2,5.0
23,3,5.0
23,4,5.0
23,5,5.0
23,6,5.0
23,7,5.0
23,8,5.0
23,9,5.0
23,10,5.0
23,11,5.0
23,12,5.0
23,13,5.0
23,14,5.0
23,15,5.0
23,16,5.0
23,17,5.0
23,18,5.0
23,19,5.0
23,20,5.0
23,21,5.0
23,22,5.0
23,23,5.0
23,24,5.0
23,25,5.0
23,26,5.0
23,27,5.0
23,28,5.0
23,29,5.0
23,30,5.0
23,31,5.0
23,32,5.0
23,33,5.0
23,34,5.0
23,35,5.0
23,36,5.0
23,37,5.0
23,38,5.0
23,39,5.0
23,40,5.0
23,41,5.0
23,42,5.0
23,43,5.0
23,44,5.0
23,45,5.0
23,46,5.0
23,47,5.0
23,48,5.0
23,49,5.0
23,50,5.0
23,51,5.0
23,52,5.0
23,53,5.0
23,54,5.0
23,55,5.0
23,56,5.0
23,57,5.0
23,58,5.0
23,59,5.0
23,60,5.0
23,61,5.0
23,62,5.0
23,63,5.0
23,64,5.0
23,65,5.0
23,66,5.0
23,67,5.0
23,68,5.0
23,69,5.0
23,70,5.0
23,71,5.0
23,72,5.0
23,73,5.0
23,74,5.0
23,75,5.0
23,76,5.0
23,77,5.0
23,78,5.0
23,79,5.0
23,80,5.0
23,81,5.0
23,82,5.0
23,83,5.0
23,84,5.0
23,85,5.0
23,86,5.0
23,87,5.0
23,88,5.0
23,89,5.0
23,90,5.0
23,91,5.0
23,92,5.0
23,93,5.0
23,94,5.0
23,95,5.0
23,96,5.0
23,97,5.0
23,98,5.0
23,99,5.0
23,100,5.0
24,0,5.0
24,1,5.0
24,2,5.0
24,3,5.0
24,4,5.0
24,5,5.0
24,6,5.0
24,7,5.0
24,8,5.0
24,9,5.0
24,10,5.0
24,11,5.0
24,12,5.0
24,13,5.0
24,14,5.0
24,15,5.0
24,16,5.0
24,17,5.0
24,18,5.0
24,19,5.0
24,20,5.0
24,21,5.0
24,22,5.0
24,23,5.0
24,24,5.0
24,25,5.0
24,26,5.0
24,27,5.0
24,28,5.0
24,29,5.0
24,30,5.0
24,31,5.0
24,32,5.0
24,33,5.0
24,34,5.0
24,35,5.0
24,36,5.0
24,37,5.0
24,38,5.0
24,39,5.0
24,40,5.0
24,41,5.0
24,42,5.0
24,43,5.0
24,44,5.0
24,45,5.0
24,46,5.0
24,47,5.0
24,48,5.0
24,49,5.0
24,50,5.0
24,51,5.0
24,52,5.0
24,53,5.0
24,54,5.0
24,55,5.0
24,56,5.0
24,57,5.0
24,58,5.0
24,59,5.0
24,60,5.0
24,61,5.0
24,62,5.0
24,63,5.0
24,64,5.0
24,65,5.0
24,66,5.0
24,67,5.0
24,68,5.0
24,69,5.0
24,70,5.0
24,71,5.0
24,72,5.0
24,73,5.0
24,74,5.0
24,75,5.0
24,76,5.0
24,77,5.0
24,78,5.0
24,79,5.0
24,80,5.0
24,81,5.0
24,82,5.0
24,83,5.0
24,84,5.0
24,85,5.0
24,86,5.0
24,87,5.0
24,88,5.0
24,89,5.0
24,90,5.0
24,91,5.0
24,92,5.0
24,93,5.0
24,94,5.0
24,95,5.0
24,96,5.0
24,97,5.0
24,98,5.0
24,99,5.0
24,100,5.0
25,0,5.0
25,1,5.0
25,2,5.0
25,3,5.0
25,4,5.0
25,5,5.0
25,6,5.0
25,7,5.0
25,8,5.0
25,9,5.0
25,10,5.0
25,11,5.0
25,12,5.0
25,13,5.0
25,14,5.0
25,15,5.0
25,16,5.0
25,17,5.0
25,18,5.0
25,19,5.0
25,20,5.0
25,21,5.0
25,22,5.0
25,23,5.0
25,24,5.0
25,25,5.0
25,26,5.0
25,27,5.0
25,28,5.0
25,29,5.0
25,30,5.0
25,31,5.0
25,32,5.0
25,33,5.0
25,34,5.0
25,35,5.0
25,36,5.0
25,37,5.0
25,38,5.0
25,39,5.0
25,40,5.0
25,41,5.0
25,42,5.0
25,43,5.0
25,44,5.0
25,45,5.0
25,46,5.0
25,47,5.0
25,48,5.0
25,49,5.0
25,50,5.0
25,51,5.0
25,52,5.0
25,53,5.0
25,54,5.0
25,55,5.0
25,56,5.0
25,57,5.0
25,58,5.0
25,59,5.0
25,60,5.0
25,61,5.0
25,62,5.0
25,63,5.0
25,64,5.0
25,65,5.0
25,66,5.0
25,67,5.0
25,68,5.0
25,69,5.0
25,70,5.0
25,71,5.0
25,72,5.0
25,73,5.0
25,74,5.0
25,75,5.0
25,76,5.0
25,77,5.0
25,78,5.0
25,79,5.0
25,80,5.0
25,81,5.0
25,82,5.0
25,83,5.0
25,84,5.0
25,85,5.0
25,86,5.0
25,87,5.0
25,88,5.0
25,89,5.0
25,90,5.0
25,91,5.0
25,92,5.0
25,93,5.0
25,94,5.0
25,95,5.0
25,96,5.0
25,97,5.0
25,98,5.0
25,99,5.0
25,100,5.0
